# .PCD v0.7 - Point Cloud Data file format
VERSION 0.7
FIELDS x y z
SIZE 4 4 4
TYPE F F F
COUNT 1 1 1
WIDTH 542
HEIGHT 1
VIEWPOINT 0 0 0 1 0 0 0
POINTS 542
DATA ascii
0.48063183 0.02810486 0.019788563
0.48079109 0.04338403 0.019107386
0.48397037 0.049090326 0.019890785
0.48479286 0.049707711 0.019037524
0.48620665 0.022435892 0.022017717
0.49015081 0.02112503 0.02247919
0.49424711 0.021123452 0.023224721
0.48260102 0.025608566 0.022453215
0.48466823 0.024612743 0.023912132
0.47949731 0.031278972 0.021918854
0.48078787 0.02874361 0.022429183
0.47925377 0.034177974 0.021791816
0.47944838 0.037441444 0.0218307
0.48068136 0.038524132 0.02291134
0.48122126 0.041790351 0.02227368
0.48309693 0.046197798 0.021687046
0.48470244 0.0472643 0.023743838
0.4857111 0.050151121 0.022279188
0.48709619 0.052610446 0.021076599
0.48842907 0.053906325 0.022529587
0.49080434 0.057539523 0.02260015
0.48791549 0.022872439 0.024454614
0.49025059 0.02287299 0.025317678
0.49353877 0.02287432 0.025841057
0.49797785 0.022877064 0.025358478
0.482871 0.026349686 0.024176776
0.48595098 0.025531515 0.025817588
0.48980662 0.02461406 0.026980242
0.4936831 0.024618633 0.027676247
0.49821797 0.024625951 0.027612856
0.50184995 0.024633227 0.026989123
0.4826265 0.030229412 0.025773965
0.48497096 0.028370285 0.027041316
0.48233271 0.034150623 0.026292106
0.48245794 0.037573982 0.026188271
0.48313144 0.041448273 0.025714021
0.48463732 0.043470562 0.026756525
0.48547009 0.046350244 0.02619111
0.48696029 0.049570967 0.025918437
0.4887464 0.050713435 0.027792037
0.48787418 0.052527662 0.024574131
0.48952287 0.053595517 0.026450545
0.49076319 0.056629639 0.025508413
0.49252218 0.058849204 0.02644062
0.49411365 0.062228482 0.025830537
0.49571845 0.065418787 0.027304173
0.49617118 0.066663899 0.025648713
0.49023449 0.026351476 0.028574195
0.49448055 0.026110794 0.0291535
0.49767837 0.026367292 0.029565692
0.50207162 0.026380055 0.029289637
0.50620711 0.026394093 0.028490305
0.4861843 0.030183654 0.028704753
0.48977 0.029817034 0.03030682
0.49382758 0.028961034 0.031088898
0.49810565 0.02810701 0.031132745
0.50236821 0.028121887 0.03130557
0.50592422 0.028136877 0.030987689
0.50961131 0.028154552 0.030276021
0.48645926 0.034140244 0.029964617
0.48939651 0.033968993 0.031713676
0.48640761 0.03760574 0.030159377
0.48665091 0.041648868 0.029793791
0.48892745 0.043683384 0.031380694
0.486826 0.045883439 0.028558806
0.48883161 0.046301275 0.030629704
0.48980767 0.049801204 0.030162493
0.49110904 0.053609654 0.029541085
0.49278069 0.055345733 0.030766109
0.49370548 0.058657039 0.030105077
0.49481091 0.061978493 0.029715326
0.49530283 0.064768799 0.028752625
0.49645299 0.065760635 0.030904138
0.49760732 0.070025377 0.029819421
0.49908924 0.074155249 0.02965194
0.49984565 0.077027753 0.030994713
0.494239 0.031560201 0.032715838
0.49794561 0.030534381 0.032947063
0.50172383 0.030723216 0.033591438
0.50594699 0.030742668 0.033942088
0.51024681 0.030764027 0.034092125
0.51367611 0.030780328 0.034302127
0.4906545 0.034267664 0.032437246
0.49394813 0.034153178 0.033778857
0.49785885 0.034167301 0.035111371
0.50180167 0.033320807 0.035598226
0.4899708 0.03760286 0.032728899
0.49367645 0.037608866 0.034771658
0.49677467 0.036754139 0.035930336
0.49005723 0.041720219 0.032797948
0.49292615 0.041842088 0.034892391
0.4908115 0.046282947 0.032766897
0.49282852 0.046268556 0.034752313
0.49095023 0.048900668 0.032216787
0.49315494 0.049819745 0.034281991
0.4941949 0.053951219 0.034062214
0.4952274 0.058271706 0.033777609
0.49680534 0.059320576 0.035889506
0.49582452 0.061827559 0.033158518
0.49675122 0.062245775 0.035006095
0.49697557 0.065340139 0.034311395
0.49807823 0.069856934 0.033976827
0.49920338 0.074100159 0.033352066
0.50028014 0.075063571 0.035730064
0.50063312 0.077580854 0.034390785
0.50288534 0.082184196 0.034555733
0.5157035 0.031654011 0.036315579
0.5180493 0.031659428 0.037261039
0.5210883 0.03166344 0.038828034
0.50188768 0.034875792 0.036679812
0.505871 0.034203041 0.037219141
0.50987005 0.034219775 0.038364179
0.51411301 0.033373322 0.038725734
0.51639992 0.033377588 0.039837617
0.49851575 0.037795644 0.037059356
0.50206244 0.037635531 0.038481548
0.50528771 0.036786042 0.039247513
0.49494362 0.042147599 0.036362998
0.49785608 0.04193265 0.038194101
0.50089729 0.040904 0.039577208
0.49487856 0.046257559 0.036608022
0.49738947 0.046076309 0.038640417
0.4949401 0.049556881 0.036370516
0.49695083 0.04971309 0.038374204
0.49500731 0.052339666 0.036070287
0.49703279 0.054053757 0.038078859
0.4972125 0.058322873 0.037705436
0.49767822 0.061747205 0.03794492
0.49850973 0.066063605 0.038415883
0.4989863 0.069888458 0.037823468
0.49977472 0.073662505 0.037442788
0.50063795 0.074942268 0.038476963
0.50150573 0.077709571 0.038288705
0.50282687 0.081002161 0.037942391
0.50454277 0.083312623 0.038855791
0.50662768 0.086469673 0.038333274
0.5103997 0.089991875 0.038240552
0.52336335 0.031666253 0.040022988
0.5256781 0.031670373 0.041095674
0.52972263 0.031683352 0.042309124
0.5341143 0.031707581 0.042472094
0.51413238 0.035088971 0.041589279
0.51809043 0.033948932 0.0419663
0.52157933 0.033380885 0.042970162
0.54187268 0.033516694 0.04338171
0.50615793 0.038076986 0.040718671
0.50976837 0.037586477 0.042347483
0.51289588 0.036798116 0.043420933
0.50253206 0.042170234 0.041219935
0.50563794 0.041075401 0.042821743
0.49900994 0.047104906 0.040182233
0.50150877 0.046057157 0.042242464
0.49891779 0.049691934 0.040510297
0.50078046 0.049588285 0.042730346
0.49917147 0.05412874 0.041461222
0.5000807 0.053637154 0.042491794
0.49924701 0.058311582 0.041754693
0.50005108 0.058299646 0.042623788
0.49930674 0.061779104 0.041542571
0.50009781 0.061764065 0.042458683
0.49915019 0.065435603 0.040843535
0.50028998 0.066478759 0.042397302
0.50086921 0.070512608 0.042416539
0.50129372 0.07376416 0.041785441
0.50270641 0.077424198 0.042249966
0.50374341 0.080526926 0.041611373
0.50541651 0.082539394 0.042401463
0.50723636 0.085875653 0.041444391
0.50892442 0.086816862 0.042806603
0.51109713 0.08901161 0.042465173
0.51323742 0.090892009 0.041671585
0.51722538 0.092774585 0.042182185
0.51921785 0.035089083 0.044968318
0.52272606 0.034522131 0.045896608
0.52559143 0.033958219 0.046096131
0.5302279 0.033405963 0.046312213
0.53466201 0.033436581 0.046310853
0.5385989 0.033475582 0.045169163
0.54174519 0.035243988 0.047028244
0.54496604 0.035294812 0.044912517
0.51145792 0.0385045 0.044749994
0.51398301 0.037931271 0.045970812
0.51731092 0.036792938 0.046743538
0.54600382 0.037046485 0.047172248
0.54906708 0.037974764 0.046145607
0.55228901 0.038916104 0.044729769
0.50661814 0.04289921 0.04527783
0.50947756 0.040939946 0.046031535
0.51229745 0.04020099 0.047748309
0.55133069 0.040641941 0.047424614
0.55411375 0.041585986 0.04600212
0.50297147 0.047070239 0.044321876
0.50531667 0.046070695 0.046388108
0.55482829 0.04423127 0.047819614
0.50299084 0.049859811 0.045868874
0.50406164 0.048762612 0.046522915
0.5019657 0.053751636 0.045744203
0.50162637 0.058221325 0.046031535
0.50162989 0.061671596 0.046018925
0.50177985 0.06590078 0.045666236
0.50284851 0.070394374 0.04637672
0.50329584 0.073726229 0.045896661
0.5041132 0.074670181 0.04637748
0.50296998 0.076466329 0.044259846
0.50510788 0.078384362 0.046208777
0.50700086 0.082407981 0.045817394
0.50889486 0.083417334 0.047585387
0.50990939 0.085950576 0.045930006
0.51234788 0.087015361 0.047578692
0.51163173 0.08893396 0.044097126
0.51405966 0.08951395 0.045714423
0.51698595 0.090740532 0.046575535
0.54582518 0.091881357 0.047675908
0.51860547 0.092714272 0.04404521
0.52156979 0.092724323 0.045856461
0.52580315 0.092796944 0.047553129
0.53499699 0.093166187 0.04796499
0.53803337 0.093330391 0.047438323
0.52680016 0.035103828 0.048787206
0.5301246 0.035122778 0.049416382
0.5336467 0.035150275 0.049463045
0.53740287 0.035187665 0.04883774
0.54031658 0.035218246 0.048172534
0.5156247 0.038494222 0.048205197
0.51860452 0.038183328 0.049829889
0.5221042 0.036794953 0.049794514
0.52598649 0.036808565 0.051376462
0.52976102 0.036835849 0.05189921
0.53484309 0.036883142 0.051780712
0.53840244 0.036922663 0.051226556
0.54251611 0.03722835 0.049959574
0.54588878 0.038521796 0.04985667
0.51060987 0.042947128 0.049395673
0.51401573 0.041238841 0.050455101
0.51647556 0.040191088 0.051124036
0.54630941 0.040516242 0.051590443
0.54969341 0.041238077 0.050308108
0.5525769 0.04240004 0.049170613
0.5070588 0.046676774 0.049129106
0.50889599 0.04598261 0.050513528
0.55187714 0.044125631 0.051153988
0.55474907 0.046206772 0.050364587
0.55640745 0.046014927 0.048606306
0.50617278 0.049404837 0.049839847
0.55769396 0.050267406 0.050108302
0.56019658 0.051426962 0.048246622
0.50350434 0.054368086 0.048412077
0.50530809 0.053628944 0.050682344
0.55936748 0.05402058 0.050552532
0.56022793 0.053217717 0.048043132
0.50335652 0.058162749 0.048934083
0.50453252 0.058127362 0.050774466
0.55887491 0.056637548 0.051899493
0.56149733 0.057946395 0.0497365
0.50333124 0.061603058 0.04902165
0.50450587 0.061564136 0.050866108
0.56131113 0.062306911 0.05023323
0.50344366 0.065926902 0.048631832
0.50474584 0.066052675 0.050634779
0.50356025 0.069394715 0.048194349
0.50542098 0.070201695 0.050657172
0.56093675 0.069157675 0.051230371
0.50582403 0.073757201 0.049956687
0.56079781 0.073584341 0.051624149
0.5068754 0.07735543 0.049768168
0.50871557 0.079537831 0.050705399
0.55895734 0.079743989 0.051664591
0.51012403 0.082335211 0.050090898
0.51279581 0.083320588 0.051890522
0.51185274 0.085165739 0.049240988
0.51410872 0.086054318 0.050361749
0.51644355 0.086960286 0.051229399
0.55383891 0.086709283 0.050688744
0.51558572 0.08883512 0.048334181
0.51863652 0.089309104 0.049731698
0.52200228 0.090293355 0.050124031
0.52614957 0.090855308 0.050857764
0.52949703 0.090962268 0.051388949
0.53388208 0.09114036 0.051481649
0.53845644 0.091358662 0.051061671
0.5424875 0.091615349 0.049669873
0.54579526 0.09052629 0.050504606
0.55013454 0.089623965 0.050254378
0.55214298 0.08843489 0.050349176
0.52790856 0.092852362 0.048092186
0.53046656 0.092946529 0.048341583
0.53385133 0.093095407 0.048288666
0.53679335 0.093237765 0.04803282
0.5221644 0.038496442 0.052416086
0.52608788 0.038514469 0.053839274
0.53038806 0.037771195 0.053378955
0.53386074 0.038342059 0.053896427
0.53762132 0.038634315 0.053608257
0.54133856 0.038686939 0.052605044
0.5146085 0.043242645 0.053277325
0.51794201 0.041566748 0.053781103
0.52183002 0.040619988 0.054897234
0.52547652 0.040213596 0.055776138
0.53508639 0.040318739 0.055913389
0.53847033 0.040367115 0.055262666
0.54273731 0.041205347 0.054587416
0.54618764 0.042485736 0.053909484
0.5109033 0.046415683 0.053053651
0.51350504 0.045796745 0.054795481
0.54662079 0.045716502 0.055980563
0.5500313 0.045668099 0.054146294
0.55305499 0.047197387 0.053034365
0.50753826 0.050401092 0.052197952
0.51001626 0.049357824 0.054252528
0.55372721 0.050096788 0.054214995
0.55684799 0.051253777 0.052601814
0.50696427 0.05411838 0.053085744
0.50885218 0.053356875 0.054998551
0.55462748 0.053495795 0.055449545
0.5568217 0.053887878 0.053489912
0.50635654 0.05808324 0.053307563
0.50823545 0.058047194 0.055636179
0.55576086 0.057046104 0.055623073
0.55825913 0.057630993 0.05372287
0.50631732 0.061513979 0.053441342
0.50821227 0.061475553 0.055746749
0.55785829 0.061583374 0.054837603
0.50644386 0.065722249 0.053177238
0.50826806 0.065777332 0.055526
0.55776584 0.066250384 0.055089086
0.5605523 0.066428944 0.052433223
0.50723845 0.070141487 0.053217303
0.50869155 0.070230834 0.054930609
0.55821645 0.069802418 0.0551164
0.56035483 0.069957085 0.052936137
0.5074594 0.073451787 0.05245303
0.50939494 0.073582247 0.054611865
0.55804491 0.074218415 0.055187184
0.56030822 0.073796831 0.053087156
0.51046866 0.077463947 0.05388559
0.5128141 0.079718605 0.054666042
0.55574685 0.078542218 0.055672705
0.55786961 0.078315839 0.054074261
0.56042105 0.076181345 0.052805066
0.51100194 0.081520483 0.052031815
0.5141387 0.082290992 0.05384044
0.51773661 0.083302505 0.055506468
0.55413485 0.082489505 0.055115536
0.55633873 0.081302181 0.05400461
0.51593834 0.085113868 0.052861452
0.51821053 0.085974887 0.053312674
0.52142709 0.086080648 0.054791842
0.52566218 0.087090671 0.055189867
0.52966827 0.087213859 0.055800188
0.53419733 0.087388344 0.055903871
0.53887451 0.087585047 0.05572325
0.54245114 0.08776167 0.055148344
0.54571933 0.087478563 0.054715171
0.54977095 0.086044885 0.055069327
0.55305248 0.085312903 0.053921808
0.52305335 0.088893235 0.052362543
0.52626067 0.088967383 0.053291056
0.5304597 0.089102395 0.053888459
0.53395337 0.08923886 0.053992052
0.53755921 0.089398205 0.053797472
0.54130691 0.089586474 0.053226244
0.54613239 0.088725545 0.053252555
0.54948801 0.088176884 0.052889306
0.51909399 0.043579269 0.056722235
0.52236128 0.042744558 0.057375725
0.52620482 0.042490702 0.058077361
0.53003794 0.041963037 0.05794356
0.53401262 0.042015005 0.057740849
0.53803939 0.042937517 0.057728935
0.54161751 0.043435302 0.05698543
0.54475141 0.043926984 0.056332707
0.51474088 0.04696225 0.056836843
0.51779699 0.046117615 0.058125801
0.52174813 0.045287345 0.059338909
0.52414793 0.045309387 0.05992943
0.53757375 0.045507334 0.059664059
0.54179245 0.046457674 0.05889672
0.54537171 0.046447098 0.057381168
0.54824167 0.047484782 0.056546312
0.5114525 0.050360784 0.056338966
0.51433235 0.049502917 0.058182135
0.51731795 0.048655882 0.059683423
0.5436241 0.049090385 0.059621196
0.54671413 0.049961831 0.058638703
0.55034876 0.050366044 0.056961268
0.51055181 0.054102544 0.057056066
0.51304728 0.053406969 0.059021227
0.5472222 0.052656226 0.059508592
0.55026978 0.053618725 0.058493424
0.55356336 0.054171257 0.056791723
0.51018482 0.058021247 0.05771042
0.51220876 0.058005605 0.059526157
0.55056942 0.057233386 0.059460368
0.55390441 0.0583442 0.057886306
0.50983202 0.061445449 0.057653885
0.51214159 0.062068153 0.059740774
0.55394363 0.0624112 0.058516193
0.55740607 0.062659785 0.056199491
0.51019466 0.065742046 0.057677355
0.51221448 0.066211663 0.05951621
0.55401361 0.066011064 0.058591567
0.55733728 0.066185988 0.056395531
0.5104661 0.069989592 0.057024013
0.51289314 0.070330709 0.059152577
0.55398744 0.069619723 0.058390152
0.55735034 0.070018612 0.056339383
0.51135945 0.07354743 0.056649238
0.51386279 0.073705845 0.058596846
0.55074304 0.074130394 0.059690274
0.55401289 0.073956914 0.058085866
0.55734605 0.072963782 0.056351602
0.51434684 0.077345222 0.057189185
0.51764953 0.078451246 0.058605533
0.52164596 0.079765834 0.059666049
0.5470838 0.078908436 0.059885502
0.55021811 0.078351654 0.059159387
0.55397534 0.078298561 0.05734035
0.51848119 0.08183942 0.05691918
0.52196276 0.082523122 0.058014788
0.52583772 0.082715973 0.059053887
0.53049374 0.083571427 0.059253097
0.5339728 0.083696544 0.05935955
0.53753996 0.083837658 0.05924217
0.5419175 0.082995489 0.059399512
0.54669726 0.081745453 0.058973886
0.5505386 0.081777535 0.057711426
0.55362904 0.081066102 0.056616843
0.52352852 0.085200399 0.056424618
0.52595484 0.085259348 0.057027835
0.53019047 0.085571304 0.05747661
0.53431112 0.086457312 0.056983486
0.53802031 0.085954189 0.057410657
0.54189754 0.085256003 0.057692964
0.54547864 0.084982298 0.057221994
0.54905188 0.084409557 0.056804836
0.52218789 0.046987515 0.060705706
0.52611506 0.046057232 0.060850404
0.52987128 0.046228852 0.061186079
0.53363854 0.046355553 0.061012194
0.53777611 0.047013838 0.060544282
0.51815176 0.049789876 0.06070945
0.52178341 0.049532272 0.061996911
0.52584881 0.049579415 0.062855765
0.52976823 0.049811903 0.063133873
0.53416198 0.049555395 0.062550932
0.53848708 0.049823005 0.061722636
0.54206961 0.050200552 0.060719829
0.54526502 0.050853737 0.060097873
0.51488554 0.054168571 0.060600881
0.51825023 0.053757124 0.062250402
0.52199388 0.053449132 0.063531332
0.52511251 0.05212573 0.063790351
0.53159839 0.052243538 0.063897491
0.53460097 0.052593533 0.063690595
0.53819621 0.053587016 0.063202985
0.54182029 0.054217044 0.062344328
0.54574901 0.053643405 0.060724873
0.51430887 0.058000308 0.061083827
0.51797253 0.058012918 0.063147716
0.54180074 0.058159571 0.063515469
0.54542917 0.057783969 0.062185459
0.54905945 0.058385018 0.060843635
0.5142355 0.06227529 0.061324775
0.51698744 0.061938588 0.062994286
0.54308534 0.062032156 0.063825786
0.54529798 0.061938096 0.063089512
0.54928374 0.062272891 0.061361071
0.5524047 0.063270144 0.060175121
0.51430672 0.066571645 0.061091054
0.51804024 0.06612061 0.063178726
0.54393685 0.064659208 0.063959956
0.54598951 0.065615885 0.063157782
0.54941887 0.065774105 0.061477192
0.55235702 0.065897718 0.060312539
0.51471877 0.069745094 0.06067808
0.51818496 0.070054494 0.062461071
0.5218181 0.070392579 0.063723795
0.54352725 0.070309907 0.063859463
0.54563874 0.069971628 0.063057646
0.54928935 0.070153363 0.061344787
0.55245823 0.06854675 0.060020804
0.51545262 0.072651662 0.060150564
0.51818877 0.07336919 0.061333563
0.52192491 0.073769078 0.062648498
0.52545893 0.073839977 0.063529268
0.52930695 0.07463906 0.0638225
0.5341987 0.07478983 0.063985288
0.53805423 0.074920118 0.063872375
0.54151189 0.074468195 0.063542217
0.54533988 0.074352615 0.062448461
0.54903209 0.074548677 0.060803473
0.51882142 0.076185681 0.060402889
0.52222747 0.077383645 0.061129916
0.52604854 0.078174748 0.06179912
0.52980983 0.07792829 0.062539354
0.53402483 0.07760486 0.062969059
0.5380941 0.077573366 0.062906139
0.54180843 0.077726424 0.062379528
0.54567236 0.077836402 0.061236873
0.54875731 0.07719133 0.060311735
0.52757096 0.081678778 0.060183782
0.53008312 0.081751883 0.06052801
0.53385419 0.08080481 0.061341457
0.53822553 0.081333287 0.060913067
0.54211909 0.080869719 0.060799867
0.54517674 0.080567226 0.060329527
0.52276987 0.055502266 0.064362548
0.52613395 0.054442577 0.064692259
0.5300625 0.053745944 0.064657308
0.53385872 0.054713983 0.064645618
0.53712165 0.055455457 0.06426686
0.52183491 0.05805086 0.064587079
0.52589047 0.058112338 0.065452501
0.53014058 0.058196802 0.065759592
0.53370577 0.05828337 0.065548047
0.53743786 0.058388766 0.064884178
0.54064757 0.059001762 0.064278029
0.51940495 0.061443627 0.06408044
0.52174616 0.061471879 0.064869702
0.52578449 0.061536953 0.065784521
0.5300107 0.061626345 0.06616053
0.53354514 0.061717167 0.066037737
0.53743494 0.061898138 0.065510176
0.54132086 0.062040605 0.064555936
0.51943302 0.064018868 0.06402126
0.52183598 0.065776601 0.064583719
0.52587456 0.065848671 0.065502189
0.53006405 0.065942012 0.065995574
0.53355557 0.066036075 0.066005602
0.5377726 0.066090561 0.06561432
0.54179025 0.065912083 0.064660616
0.522798 0.06925147 0.064273238
0.52611387 0.070187978 0.064752296
0.53029615 0.070288815 0.065279335
0.53376609 0.070388213 0.065363646
0.53733635 0.070502117 0.065189332
0.54152328 0.069893867 0.064557955
0.52715409 0.072825477 0.064245299
0.53041124 0.073438913 0.064391926
0.53404725 0.07372085 0.064518295
0.53748775 0.073717549 0.064451225
0.54089814 0.073255621 0.06425003
