# .PCD v0.7 - Point Cloud Data file format
VERSION 0.7
FIELDS x y z
SIZE 4 4 4
TYPE F F F
COUNT 1 1 1
WIDTH 398
HEIGHT 1
VIEWPOINT 0 0 0 1 0 0 0
POINTS 398
DATA ascii
0.46192053 0.070675701 0.010773073
0.46334049 0.083705902 0.01184835
0.46361873 0.086394392 0.010662596
0.46088299 0.061795171 0.015229017
0.46130416 0.065338783 0.013420303
0.46161017 0.068002731 0.012105942
0.46236944 0.074782513 0.015986979
0.46264398 0.077447705 0.014816761
0.46305045 0.081021622 0.013084382
0.46434057 0.093991637 0.014697645
0.46477506 0.098476946 0.012859921
0.46496677 0.10115176 0.0120489
0.45986143 0.053859685 0.019615849
0.46009669 0.055618037 0.018605551
0.46040711 0.0582559 0.017272502
0.46155378 0.067690611 0.01946336
0.46185812 0.070344038 0.018166343
0.46220833 0.073706821 0.016673708
0.46326646 0.083285116 0.019241353
0.46353766 0.085953213 0.018094113
0.46387166 0.089338593 0.016681135
0.46400237 0.090417139 0.016128242
0.46485063 0.098873176 0.01957655
0.46506047 0.10153937 0.018695524
0.46539769 0.10598942 0.017279698
0.45957008 0.052097287 0.020867189
0.4605974 0.058908459 0.023539642
0.46089098 0.061536822 0.022288442
0.46125081 0.06504523 0.020754507
0.46225747 0.073984072 0.023509547
0.46271536 0.077967502 0.021572517
0.46306551 0.081504725 0.020091375
0.46389565 0.089083768 0.023586065
0.46411848 0.091733508 0.022650501
0.46440068 0.094408415 0.02146556
0.46469054 0.097091727 0.02024891
0.46553838 0.10722507 0.023656627
0.46562251 0.10984069 0.023306141
0.45982352 0.053646158 0.026837608
0.46009874 0.05539884 0.025664985
0.46030119 0.057144154 0.024801871
0.46147314 0.066521749 0.026827266
0.46182618 0.070023634 0.025333971
0.46213779 0.07266748 0.024015754
0.46314588 0.082000129 0.026733944
0.46350288 0.085531116 0.025235206
0.46467265 0.097462744 0.027264515
0.46508509 0.10189858 0.025545742
0.46542645 0.10546156 0.024123112
0.45942244 0.05017348 0.028547399
0.46039391 0.057783399 0.031392653
0.46097073 0.062149391 0.028952764
0.46194267 0.070591368 0.031785827
0.46227318 0.074080437 0.030398117
0.46275559 0.078471757 0.028372625
0.46366063 0.087729655 0.031481862
0.46383998 0.089491434 0.030734578
0.46403989 0.0912624 0.029901544
0.46432504 0.093920201 0.028713146
0.4653337 0.10575092 0.031382281
0.46560255 0.11013001 0.030270167
0.45941523 0.049989939 0.035532348
0.45975947 0.053431619 0.034076273
0.46004343 0.055173773 0.03287502
0.4611136 0.063614227 0.03526656
0.46143618 0.066227451 0.033911973
0.46174705 0.068844743 0.03260706
0.46271729 0.078100421 0.035413105
0.46303141 0.081585072 0.03410409
0.46337652 0.085088253 0.032666076
0.46422178 0.094279394 0.035981953
0.46459946 0.097810209 0.03441982
0.46507618 0.10224002 0.032447547
0.48587909 0.05551609 0.039104562
0.48922706 0.055582535 0.039200712
0.46031603 0.057540014 0.038615227
0.48329318 0.058028284 0.039348554
0.48587513 0.058093559 0.039119814
0.49013907 0.058194321 0.038958218
0.46078083 0.061007559 0.036663909
0.48331237 0.060604725 0.039275486
0.48590335 0.061535567 0.039014097
0.48978072 0.061457198 0.039031126
0.48670697 0.064129263 0.039156616
0.4883413 0.064164214 0.039352059
0.46195784 0.071130924 0.038577933
0.46233913 0.074610226 0.036989391
0.4862209 0.07902924 0.03887495
0.49021375 0.078031257 0.038682099
0.49354014 0.078997627 0.038921583
0.48622259 0.081895933 0.038868718
0.49023035 0.08234521 0.038621642
0.49351606 0.082445629 0.039009225
0.46338439 0.086383142 0.039445829
0.4867866 0.084783994 0.038858254
0.49014676 0.084910378 0.038928058
0.46373475 0.089879014 0.03799656
0.46398076 0.092502184 0.036978919
0.46419859 0.094271839 0.036077976
0.49112058 0.098778047 0.038459431
0.49434376 0.098885752 0.039091676
0.46498406 0.10212348 0.03960377
0.49019814 0.10216223 0.038740426
0.49446866 0.10151673 0.038639069
0.49667433 0.10239663 0.039900165
0.46540684 0.10609845 0.037867852
0.49048859 0.10630106 0.038917068
0.49438873 0.10494736 0.038928274
0.46563783 0.11043655 0.036919136
0.46577325 0.11389347 0.036363322
0.45949268 0.049819227 0.042072322
0.45986506 0.054088961 0.040508736
0.48678455 0.053729411 0.042015295
0.49021304 0.054663915 0.041802425
0.49239162 0.058105979 0.043105602
0.46092212 0.062468827 0.042894442
0.49121705 0.062445428 0.041214485
0.4612546 0.065907799 0.041508932
0.48932472 0.064088039 0.041961193
0.46159509 0.068512581 0.040089767
0.46246776 0.077680416 0.043237776
0.49374452 0.077967785 0.042293761
0.46296448 0.082034141 0.04118301
0.4942371 0.081413992 0.042556126
0.48921952 0.086392589 0.042349536
0.4922137 0.084710084 0.043753546
0.4641847 0.093811207 0.042886198
0.4646163 0.098182529 0.041114002
0.4912734 0.096883237 0.041007597
0.49428511 0.097788416 0.042380769
0.46488312 0.10081585 0.040018439
0.49634957 0.10229245 0.041067392
0.49291217 0.10728224 0.041208863
0.46569636 0.109904 0.043390393
0.46593258 0.11422762 0.042427532
0.45984873 0.046329204 0.047367841
0.45981601 0.050520737 0.047504056
0.45991635 0.053051397 0.047085702
0.4600395 0.054748293 0.046572726
0.49069247 0.054538693 0.046226621
0.46043745 0.058173843 0.044914026
0.49275163 0.058808431 0.047931332
0.49039495 0.063050807 0.04731654
0.49205008 0.060631964 0.044349831
0.46141472 0.066499464 0.047593594
0.46166456 0.069912992 0.046560183
0.46207222 0.074212216 0.044874012
0.49303499 0.07598915 0.046905935
0.49476552 0.079486363 0.046760917
0.46304691 0.083356798 0.047558326
0.49419048 0.082094409 0.04578175
0.46332279 0.085958339 0.046425533
0.48978248 0.08616861 0.046475668
0.49278414 0.084496208 0.047813494
0.46371934 0.089445114 0.044797141
0.46469548 0.097730637 0.047470212
0.49341705 0.096669562 0.045523167
0.46507251 0.10207365 0.045933381
0.49664265 0.1019352 0.046106882
0.46544075 0.10642657 0.044432271
0.49445271 0.10621675 0.044841856
0.46623802 0.11546019 0.047826052
0.46640739 0.11721598 0.047140796
0.47119808 0.043055583 0.050870132
0.47434965 0.04308733 0.051380258
0.47767618 0.043134004 0.051257033
0.48187318 0.04319419 0.051036537
0.48601469 0.042398255 0.051103551
0.49019495 0.042451434 0.05111229
0.49440548 0.042505667 0.051085044
0.49780798 0.042550627 0.051002145
0.45964825 0.046307821 0.048203129
0.46215606 0.046277016 0.051222403
0.46622348 0.045501366 0.051178161
0.47032541 0.045564342 0.051088348
0.47444871 0.045627788 0.050994843
0.47776473 0.045678865 0.050917249
0.48191559 0.045741573 0.050876625
0.48608148 0.04580405 0.05085614
0.49026245 0.045866087 0.050866082
0.49446595 0.045928627 0.050868426
0.49784866 0.045979228 0.050858159
0.5021013 0.046043094 0.050833538
0.46217597 0.050464824 0.051140919
0.46625152 0.049701139 0.051064759
0.47031957 0.049771294 0.051111382
0.47442877 0.04984441 0.051072784
0.47773445 0.049903464 0.051033314
0.48188359 0.049977198 0.050997399
0.48605883 0.050052036 0.050939932
0.49025244 0.050126605 0.050902676
0.49446997 0.0502019 0.050854042
0.49784884 0.050261103 0.050857365
0.50210184 0.049477752 0.050831642
0.50639307 0.049552906 0.050747845
0.46216026 0.053811289 0.051205106
0.46623221 0.053895447 0.051142458
0.47030142 0.053976446 0.051182978
0.47441068 0.054060683 0.05114311
0.47771403 0.05412839 0.051111534
0.48077551 0.053910971 0.051002614
0.49119306 0.053565253 0.050530571
0.49400806 0.054640964 0.050697312
0.49785069 0.054543179 0.050850838
0.50209957 0.05377074 0.050839353
0.50639099 0.053857651 0.050754722
0.50973833 0.054277763 0.050455742
0.46217659 0.057999641 0.051136669
0.46622255 0.058090553 0.051181462
0.47029108 0.058182124 0.051223859
0.47439861 0.058277205 0.051189877
0.47769892 0.057507951 0.051169429
0.49412018 0.05773294 0.050291993
0.49784899 0.057968441 0.050856758
0.50209892 0.058063846 0.050842039
0.50638884 0.058162332 0.050761968
0.50987285 0.058246184 0.050581533
0.46234623 0.062216725 0.050434247
0.46621266 0.062285271 0.051221292
0.47028229 0.06238769 0.051258877
0.47439095 0.062494054 0.051219758
0.47769541 0.061734419 0.051182985
0.48079115 0.062950544 0.050943866
0.49115148 0.06379535 0.050681967
0.4939326 0.061951458 0.050513189
0.49785104 0.062250614 0.050849691
0.50209832 0.061498303 0.050844196
0.50638688 0.061605975 0.050768916
0.50986379 0.061696768 0.050611824
0.46259928 0.065395065 0.050725639
0.46620449 0.06564071 0.051254094
0.47027344 0.065751575 0.051293787
0.47438601 0.06586758 0.051238641
0.47769305 0.065960936 0.051192332
0.48186398 0.066081315 0.051070955
0.48608801 0.066207886 0.050832033
0.49027205 0.06632369 0.050831217
0.49447957 0.066440523 0.050819367
0.49785885 0.066533849 0.050821993
0.50210452 0.065792583 0.050822452
0.50638986 0.065911382 0.050758455
0.50986415 0.066011585 0.050610628
0.46291882 0.069730192 0.051411185
0.46619123 0.069834009 0.051307451
0.47025588 0.069954664 0.051363334
0.47437409 0.070083022 0.051285222
0.47768465 0.070186146 0.051224351
0.48162651 0.06982781 0.051072858
0.48606527 0.069604084 0.050916165
0.49027082 0.069732904 0.050835397
0.49448708 0.069860384 0.050792217
0.49786949 0.069961451 0.050784465
0.50211698 0.070088185 0.050778791
0.50639784 0.070217773 0.050731231
0.50986749 0.070326932 0.050599579
0.51266068 0.071306594 0.049894016
0.4629811 0.073931836 0.05115455
0.46617141 0.074025311 0.051387638
0.47023779 0.074157037 0.051435083
0.47435892 0.074297369 0.051344123
0.47767758 0.074411355 0.051251531
0.48207781 0.073930413 0.051047098
0.486105 0.073012725 0.050769329
0.49004328 0.072983645 0.050440069
0.49418274 0.074133769 0.050589152
0.49788511 0.074246861 0.050729129
0.50212574 0.073524721 0.050748259
0.50640196 0.073662631 0.050717097
0.50986534 0.073778391 0.050606716
0.51253849 0.073878191 0.050302863
0.46318007 0.078170657 0.050337359
0.4661631 0.078218751 0.051420875
0.46999377 0.077871345 0.051476449
0.47435132 0.077669524 0.05137378
0.4776729 0.077791564 0.051269382
0.48073706 0.077622913 0.051148336
0.49511349 0.07820832 0.049553566
0.49789742 0.078532025 0.050685328
0.50213623 0.077820607 0.050712045
0.50640935 0.077969357 0.050691679
0.50986457 0.078093044 0.050609197
0.51248682 0.078190543 0.050475672
0.4634046 0.082080007 0.050522938
0.46615657 0.082412399 0.051447194
0.47043249 0.0819434 0.051472932
0.4743489 0.081886239 0.051383033
0.47766966 0.082017317 0.05128181
0.48086271 0.082487725 0.051091131
0.49504825 0.082187504 0.04978748
0.49790144 0.081959076 0.050671186
0.50214523 0.082116522 0.050680414
0.50642055 0.082277171 0.050653353
0.50987488 0.082410134 0.050574329
0.51248902 0.082513355 0.050468296
0.46364141 0.085647605 0.051766962
0.4661586 0.085769124 0.05143939
0.47023481 0.085933417 0.051446632
0.47435054 0.086103976 0.051376592
0.47767222 0.086244531 0.051271841
0.48185623 0.086423993 0.051100247
0.48593727 0.086916827 0.050357778
0.49038491 0.087235831 0.050418612
0.49418008 0.086097635 0.05059902
0.49790213 0.086241975 0.050668836
0.50215077 0.085553043 0.05066121
0.506432 0.085724287 0.05061416
0.50988084 0.085863508 0.050554112
0.51310027 0.086290814 0.050349481
0.46371135 0.08901871 0.051481903
0.465857 0.090203449 0.051249165
0.47023988 0.090141051 0.0514265
0.47418943 0.0899776 0.051363885
0.47767591 0.089626849 0.051257674
0.48185456 0.089814231 0.051106635
0.48606494 0.09000539 0.050916944
0.49028909 0.090194501 0.050768845
0.49451444 0.09037897 0.050694373
0.49789989 0.090524115 0.050676692
0.50215572 0.089848392 0.050644137
0.50643516 0.090030737 0.050603405
0.50988114 0.090178616 0.050553221
0.51337576 0.089470588 0.050390717
0.46553978 0.094185561 0.050650198
0.4702476 0.094349653 0.051396105
0.47452587 0.094043151 0.051334061
0.47768226 0.093855433 0.051233146
0.48186275 0.094055027 0.051075522
0.48590171 0.09390901 0.050903488
0.49029535 0.093606018 0.050746046
0.49453214 0.093802959 0.050630737
0.49791646 0.093954958 0.050617959
0.50216287 0.094144531 0.050619233
0.50643879 0.094337404 0.050590858
0.50988418 0.094494499 0.050542682
0.51335806 0.093790941 0.050449386
0.46596617 0.098001152 0.051559735
0.47025293 0.097716518 0.051374555
0.474372 0.097919442 0.051293284
0.47769618 0.098086633 0.051179972
0.48187125 0.098296173 0.051043775
0.48615432 0.096832834 0.050585598
0.49509293 0.097033814 0.049629815
0.49795532 0.098249666 0.050480396
0.5021773 0.097584143 0.050569102
0.5064531 0.097786099 0.050541822
0.50989074 0.097948425 0.050520688
0.51336163 0.098116688 0.050437257
0.46633407 0.10205953 0.051387284
0.47025943 0.10192523 0.051348694
0.47437799 0.10213925 0.051269602
0.47753519 0.10196836 0.051164176
0.48188972 0.10169324 0.050973907
0.49803582 0.10255846 0.050195098
0.5021984 0.10188512 0.050495606
0.50648046 0.10210041 0.050448317
0.50974119 0.10191647 0.050444629
0.51336998 0.10157893 0.050409481
0.46622014 0.10592973 0.05119
0.4702647 0.10613367 0.051328093
0.47438943 0.10636119 0.051225159
0.47787523 0.10604687 0.051126216
0.48189184 0.10593298 0.050965581
0.48582739 0.10728935 0.050766308
0.49515635 0.10634568 0.049149737
0.49780458 0.10589859 0.050321821
0.50221372 0.10618493 0.050442178
0.50651532 0.1064179 0.050329272
0.51011783 0.10608704 0.050334156
0.51376021 0.10617657 0.050343949
0.46648249 0.10983849 0.050786272
0.47003365 0.10984725 0.051318157
0.47439191 0.10973653 0.05121566
0.47772118 0.10993154 0.051084001
0.48189932 0.11017469 0.050937667
0.48609343 0.11041711 0.050811153
0.49012408 0.11001769 0.050605241
0.49419695 0.10978912 0.050538074
0.4979327 0.11023583 0.050560597
0.50221372 0.10962098 0.050442323
0.50652236 0.10986581 0.050304856
0.50995857 0.1100533 0.050291166
0.46651605 0.11360348 0.049992129
0.47047544 0.11393017 0.051302731
0.47439972 0.11395773 0.051184844
0.47772372 0.11415993 0.051074278
0.48166221 0.11391527 0.050937813
0.48609734 0.11381918 0.050796624
0.48996899 0.11421947 0.050711744
0.49402389 0.11411698 0.050641079
0.49792185 0.11451513 0.050598815
0.50197059 0.11367824 0.050547142
0.50647455 0.11329489 0.050468579
0.47023308 0.11705782 0.051452927
0.47433877 0.11730725 0.051422268
0.47769776 0.11753142 0.051173765
0.48268941 0.11614298 0.05108602
0.48600841 0.1163353 0.051126182
0.49019539 0.11658381 0.051110394
