# .PCD v0.7 - Point Cloud Data file format
VERSION 0.7
FIELDS x y z
SIZE 4 4 4
TYPE F F F
COUNT 1 1 1
WIDTH 273
HEIGHT 1
VIEWPOINT 0 0 0 1 0 0 0
POINTS 273
DATA ascii
0.5025543 -0.01289765 0.0065714717
0.48849037 0.0015968382 0.0069415569
0.50653988 -0.017077655 0.0091258092
0.50873584 -0.018296802 0.0098443627
0.50280869 -0.013396576 0.0098563833
0.50495863 -0.014604693 0.010707617
0.49916813 -0.009744972 0.01032865
0.50122488 -0.010937335 0.011489868
0.49469876 -0.0055349907 0.0096170008
0.49706265 -0.0073271552 0.010599703
0.49014762 -0.0010156045 0.010398045
0.49282578 -0.0037182989 0.010112852
0.48683906 0.0025547501 0.009885937
0.48256761 0.0070116222 0.0097955167
0.48439187 0.0052237501 0.0093870759
0.48248029 0.0093664406 0.01001973
0.48425147 0.010528157 0.0099343956
0.48640022 0.013164216 0.009868592
0.48899907 0.015804894 0.0098418444
0.49090138 0.017923752 0.0095113041
0.49276152 0.019340375 0.010403931
0.49463108 0.021704525 0.0098609328
0.49640465 0.022888934 0.0098663568
0.51031262 -0.020881789 0.013509393
0.50699264 -0.017517963 0.01381582
0.5089426 -0.019893324 0.015159011
0.50225687 -0.012659544 0.014025152
0.50417161 -0.014497278 0.013451576
0.4987886 -0.0090435892 0.013912618
0.50057799 -0.010857025 0.01376158
0.49540931 -0.0054492429 0.013561994
0.49687552 -0.0072198473 0.014535189
0.49051705 -0.00064024888 0.01455758
0.49305788 -0.0030495115 0.013708572
0.48622081 0.0029154357 0.013317983
0.48838946 0.0017267149 0.013951242
0.48274159 0.0066285497 0.014064103
0.48463646 0.0053084586 0.015156746
0.48329854 0.0088146701 0.013591905
0.48519993 0.010214945 0.014244032
0.48676085 0.01230974 0.013489882
0.48948514 0.014651765 0.014094538
0.49180415 0.017584156 0.01395911
0.49356553 0.0187582 0.013950993
0.49541202 0.021114605 0.013496558
0.49730045 0.022531953 0.014277423
0.49888328 0.024662048 0.01355195
0.50077808 0.026083786 0.014330387
0.51141143 -0.02158981 0.018993258
0.50645179 -0.016770631 0.017836452
0.50942749 -0.019214971 0.017759105
0.5025813 -0.013165233 0.017011682
0.50467849 -0.014360068 0.017998874
0.4989821 -0.0095402421 0.017400602
0.50109899 -0.010734098 0.018290043
0.49540004 -0.0059329043 0.017789325
0.49743202 -0.007113535 0.018963516
0.49113739 -0.001784971 0.016406536
0.49334884 -0.0035456382 0.017933577
0.48637164 0.0027066991 0.018233344
0.48883027 5.1440671e-05 0.018612862
0.48340806 0.0064213313 0.018424714
0.48400518 0.0071042599 0.017600715
0.48582307 0.0097218314 0.017734617
0.48767096 0.012331468 0.016545087
0.48994827 0.013912492 0.017732775
0.49232492 0.015841125 0.018541733
0.4944343 0.018474234 0.017750692
0.49790001 0.022000667 0.017771369
0.49977854 0.024656404 0.016608745
0.50178033 0.025762979 0.018088251
0.51126283 -0.021447524 0.022544652
0.5062722 -0.016932623 0.021529257
0.50938165 -0.019611442 0.022969395
0.50255483 -0.013290411 0.022323698
0.5049234 -0.015962312 0.023148358
0.49876457 -0.0088630952 0.020359159
0.50018686 -0.010620726 0.021505415
0.49533868 -0.0052835084 0.020202994
0.49689353 -0.0070537645 0.020854115
0.49167109 -0.0016928362 0.021041751
0.49322921 -0.0034581944 0.021615803
0.48700386 0.0027746018 0.022459149
0.48930678 0.00068290037 0.021325866
0.4854455 0.0065184711 0.022142779
0.48720574 0.0088799382 0.021635571
0.48920247 0.010402943 0.022210091
0.49100411 0.012939146 0.021335112
0.49365428 0.014901384 0.022368593
0.49520388 0.017601777 0.020686248
0.49714506 0.018775446 0.022033103
0.49910441 0.021119228 0.021614421
0.50085437 0.02263011 0.021785932
0.5029968 0.025091438 0.021555044
0.51114827 -0.021309027 0.025999665
0.50740498 -0.017654577 0.026830971
0.50872964 -0.018623995 0.025298625
0.5027135 -0.012850623 0.027015885
0.50542051 -0.015299633 0.025676727
0.49868688 -0.0093244985 0.024786154
0.50079906 -0.010511296 0.02563709
0.49511537 -0.0057408144 0.025206605
0.49721631 -0.0069225635 0.026072621
0.4912217 -0.0015826458 0.025862426
0.49291587 -0.0033535482 0.025947124
0.4862304 0.0034322829 0.02639105
0.48893449 0.00079689175 0.026984295
0.48660174 0.0059413793 0.025297711
0.48888022 0.0066892495 0.02688597
0.4905397 0.0094281286 0.025836682
0.49272931 0.010643738 0.026698336
0.49445465 0.013498737 0.025704887
0.49728256 0.015429901 0.026559621
0.49862602 0.018196 0.025046203
0.50090879 0.018865952 0.026958287
0.50252742 0.021707416 0.025574202
0.50482422 0.022879925 0.026741028
0.51103425 -0.021173827 0.029392809
0.5128814 -0.022998856 0.029073805
0.50726342 -0.017525297 0.030349106
0.50916272 -0.019349296 0.029813737
0.50199515 -0.013019139 0.030454904
0.50504225 -0.015110254 0.03105239
0.49831915 -0.0091612088 0.030250788
0.50001854 -0.010415072 0.028359175
0.49476767 -0.0055966568 0.030654212
0.49654251 -0.0068477858 0.028443217
0.49109006 -0.0015007276 0.029559135
0.49250302 -0.0032392433 0.030599743
0.4876712 0.0030649495 0.029549409
0.48942089 0.0028962097 0.031021878
0.49021271 0.0061008711 0.029321248
0.49284872 0.0067128665 0.031206122
0.49146342 0.0089230603 0.028049111
0.49439809 0.0096704727 0.029973477
0.49693534 0.010661758 0.031235537
0.49489486 0.012390404 0.028052926
0.49825773 0.01376704 0.029770277
0.50142741 0.015379252 0.03128906
0.50223249 0.018255966 0.029415764
0.50488329 0.018870831 0.031323545
0.50352621 0.021122206 0.02809751
0.50635487 0.021798026 0.030011121
0.50878 0.022878462 0.031196505
0.51099867 -0.021559389 0.034455877
0.51280683 -0.022863513 0.032339334
0.50720507 -0.017406749 0.033599913
0.50866181 -0.019160034 0.034520239
0.50256747 -0.012636651 0.033678353
0.50536102 -0.015600475 0.033975601
0.49894878 -0.0090582957 0.034282763
0.50065875 -0.010310935 0.032330215
0.49488032 -0.0049218554 0.034530699
0.4966712 -0.0066974144 0.034249932
0.49100089 -0.0014021149 0.034088951
0.49343944 -0.003184991 0.033586681
0.49062812 0.0017744824 0.033701833
0.49358955 0.0032075362 0.035027921
0.49427813 0.0061188014 0.033250067
0.49700463 0.0066455132 0.035057589
0.49548912 0.0089402562 0.032154799
0.49846318 0.009560056 0.033912744
0.50093305 0.010673111 0.034965478
0.49891859 0.012403283 0.032187879
0.50238037 0.013707663 0.03378161
0.50560194 0.015302665 0.035139374
0.50631517 0.018260159 0.033367012
0.50906491 0.01879061 0.03517535
0.5075624 0.021123381 0.032242596
0.51046139 0.021663319 0.033899006
0.51121479 -0.020851657 0.037748218
0.51370645 -0.021775482 0.038169742
0.51676071 -0.021469655 0.038431723
0.5073365 -0.017265974 0.037615225
0.510158 -0.01817918 0.038386244
0.5136314 -0.019137377 0.038423598
0.51833355 -0.018775575 0.038411796
0.50273347 -0.013695603 0.037009001
0.50632417 -0.014100693 0.038224496
0.50967473 -0.013795095 0.038574483
0.51405817 -0.013905777 0.038094588
0.51720566 -0.013965008 0.038373388
0.52236921 -0.013973128 0.038381491
0.49868888 -0.0087166755 0.037997257
0.50165939 -0.0099388873 0.038236685
0.50561607 -0.010011696 0.038357981
0.51014167 -0.0094423536 0.038442448
0.51361722 -0.0086325901 0.03847127
0.51834166 -0.0090424623 0.038368449
0.52242619 -0.0096788574 0.03835899
0.52596372 -0.0097463457 0.038355455
0.4952364 -0.0051857135 0.038105536
0.49805042 -0.005743139 0.038484108
0.50149828 -0.0058017266 0.038436815
0.50580156 -0.0056574028 0.038477629
0.51017159 -0.0059519182 0.038340468
0.5136829 -0.0060136118 0.038250074
0.51804084 -0.0060857981 0.038314767
0.52218133 -0.0063251937 0.038590919
0.5257355 -0.0061961059 0.039093643
0.4908824 -0.0013480466 0.03651607
0.49401742 -0.0021758075 0.037977647
0.49784344 -0.002268642 0.038632303
0.50202793 -0.0023436111 0.03805507
0.50496525 -0.0023802619 0.038364295
0.51037604 -0.0024636057 0.038218368
0.51376909 -0.0025197272 0.037959281
0.51807964 -0.0025785523 0.038185228
0.52182734 -0.0024485223 0.038607419
0.52608716 -0.001920264 0.038120348
0.52849519 -0.0020575589 0.038783908
0.49456316 0.0012126608 0.037178203
0.49793214 0.0022260067 0.037992515
0.5018574 0.0021210008 0.038771413
0.50626957 0.0028280769 0.038334522
0.51018167 0.0019088255 0.038306117
0.51367211 0.0018658186 0.038286239
0.51804304 0.0018131154 0.038307589
0.52221221 0.002117977 0.03848156
0.52597141 0.0034808554 0.038330745
0.49879372 0.0060748886 0.036847949
0.50160861 0.0063545578 0.038042162
0.50584853 0.0063177166 0.038301799
0.50983304 0.0061857868 0.038527593
0.51418042 0.0071102185 0.03801915
0.51824808 0.0064191772 0.038354784
0.52244443 0.0061596171 0.038299542
0.52598721 0.0061256071 0.038279828
0.50222749 0.0095237913 0.036871295
0.5058943 0.0098006912 0.03814172
0.50948119 0.009903864 0.038590755
0.51402944 0.0096420143 0.038041428
0.51736134 0.0096392715 0.038450886
0.52235878 0.0096005797 0.03832617
0.50657964 0.013276068 0.037257008
0.50999272 0.014312634 0.038064446
0.51364893 0.014997602 0.038364459
0.51792932 0.014320301 0.038333416
0.51086557 0.018208999 0.036960084
0.51366019 0.01841839 0.038067259
0.51167738 -0.017210377 0.042037994
0.51389617 -0.017259238 0.042153914
0.51679897 -0.017318308 0.042432744
0.51068026 -0.014364597 0.041785769
0.51804835 -0.013875439 0.041666776
0.51132357 -0.011276221 0.042086661
0.51388186 -0.010278151 0.042200558
0.51716959 -0.010328548 0.042675227
0.49971092 -0.0052570035 0.041690707
0.5019483 -0.0063258046 0.042475898
0.50550854 -0.0056542396 0.042029005
0.52298385 -0.0051909462 0.042285144
0.52606225 -0.0062372633 0.041509457
0.52874237 -0.0052972385 0.041816533
0.49907717 -0.0022129195 0.041940499
0.50670004 -0.0023397158 0.041332733
0.50802892 -0.0023270221 0.042793214
0.5217219 -0.0026753412 0.041875005
0.52768099 -1.0291114e-05 0.041278839
0.52959836 -0.0019446469 0.041958068
0.49968874 0.00036946591 0.041749835
0.50242859 0.00137574 0.041834187
0.50548297 0.00029721335 0.041980695
0.52293271 0.00041534379 0.041873563
0.52596766 0.0017829493 0.041916206
0.51109159 0.0063183689 0.041848928
0.51420569 0.0054239179 0.042355835
0.51737458 0.0063891062 0.042182498
0.51064658 0.0098074898 0.041910119
0.51795518 0.0098782107 0.041914683
0.51170921 0.012414397 0.041930258
0.51387125 0.012404211 0.042236891
0.51681805 0.012388289 0.042369545
